ply
format ascii 1.0
comment PCL generated
element vertex 1328
property float x
property float y
property float z
element camera 0
property float view_px
property float view_py
property float view_pz
property float x_axisx
property float x_axisy
property float x_axisz
property float y_axisx
property float y_axisy
property float y_axisz
property float z_axisx
property float z_axisy
property float z_axisz
property float focal
property float scalex
property float scaley
property float centerx
property float centery
property int viewportx
property int viewporty
property float k1
property float k2
end_header
0.023548383 -0.019248432 0.35870743
0.02363921 -0.019216234 0.35810834
0.023790278 -0.019233601 0.35842386
0.024075318 -0.019253809 0.35879019
0.024323007 -0.019243935 0.35859692
0.024441293 -0.019234303 0.35842025
0.024575349 -0.019238058 0.35847655
0.024720792 -0.019250115 0.35869527
0.024853343 -0.019251928 0.3587271
0.024979413 -0.019248582 0.35866499
0.025116868 -0.019254195 0.3587662
0.025371918 -0.019250421 0.35868403
0.025514662 -0.019260008 0.35885766
0.025755998 -0.019246403 0.35858515
0.025899773 -0.019256638 0.35877058
0.026173433 -0.019266332 0.35894486
0.026406765 -0.019246465 0.35856918
0.026682112 -0.019257898 0.35876405
0.026952075 -0.019264581 0.35888338
0.027354207 -0.019272989 0.35902169
0.027462598 -0.01925778 0.35873219
0.027578771 -0.019248204 0.3585453
0.027741723 -0.019270735 0.35896569
0.028014544 -0.019279681 0.359115
0.028264284 -0.01927232 0.35896716
0.0285186 -0.019268295 0.35887998
0.040960494 -0.019366952 0.36007133
0.041063901 -0.019353995 0.35982239
0.041233566 -0.019372407 0.36015543
0.041365754 -0.019373333 0.36015916
0.041486513 -0.019368177 0.36006317
0.041620482 -0.01936998 0.36008278
0.041746695 -0.019367468 0.36003497
0.041915268 -0.019384976 0.36035141
0.042032838 -0.019378966 0.3602289
0.042133197 -0.019364916 0.35995999
0.042279355 -0.019372018 0.36008275
0.042463068 -0.019396104 0.36052334
0.042568088 -0.019384278 0.36029491
0.042667136 -0.019369794 0.36001804
0.04283363 -0.019385947 0.36030978
0.042945161 -0.019377276 0.36013874
0.04309481 -0.019385569 0.36028749
0.043227121 -0.019386487 0.36029097
0.043365996 -0.019389763 0.36034837
0.043473564 -0.019379377 0.36014614
0.043611575 -0.019382888 0.36019677
0.043779772 -0.01939914 0.36049524
0.043889415 -0.019390019 0.36031106
0.046931989 -0.019402707 0.36034518
0.047097076 -0.019416682 0.36059687
0.047248885 -0.019425347 0.36074576
0.0098579573 -0.019045277 0.3577154
0.016219836 -0.019062817 0.35789931
0.016348019 -0.019060949 0.35786447
0.016614186 -0.019068692 0.35800549
0.016735913 -0.019059854 0.35783145
0.02548038 -0.019104557 0.35837898
0.025638567 -0.019125329 0.35877001
0.025776705 -0.019131223 0.35887691
0.02602642 -0.019123519 0.35872194
0.026149001 -0.019118324 0.35861424
0.026270211 -0.019111525 0.3584882
0.028654831 -0.019141912 0.35895467
0.028906865 -0.019136434 0.35884014
0.029166384 -0.019136038 0.3588188
0.029308587 -0.019143861 0.35896084
0.029443497 -0.01914672 0.35901183
0.029693842 -0.019140219 0.35887849
0.029972486 -0.01915236 0.35908705
0.030216115 -0.01914154 0.35887447
0.030482318 -0.019145377 0.35893068
0.03060963 -0.019143296 0.35889083
0.030764373 -0.01915868 0.35917157
0.031023815 -0.019158062 0.35914588
0.031150896 -0.019155793 0.3591027
0.031302448 -0.019168882 0.3593412
0.031407882 -0.019153688 0.35904974
0.031536464 -0.019153027 0.35902485
0.031653564 -0.019144671 0.35887
0.031805657 -0.019157887 0.3591108
0.032078233 -0.019165322 0.35923275
0.033386335 -0.019167915 0.35921898
0.033655889 -0.019173162 0.35930058
0.033904742 -0.019166345 0.35916099
0.034204386 -0.019188108 0.35955647
0.034454346 -0.019181935 0.3594287
0.034593128 -0.019186988 0.35950845
0.034739275 -0.01919557 0.35966396
0.034875277 -0.019198356 0.35971323
0.034980025 -0.019184243 0.35944155
0.04320458 -0.019245256 0.36010596
0.043352876 -0.019253196 0.36024281
0.043476488 -0.019249899 0.36017388
0.043592393 -0.019243093 0.36004198
0.043732747 -0.019247627 0.36011165
0.043848604 -0.019240789 0.35997972
0.044005342 -0.019252403 0.36018342
0.044121739 -0.019245572 0.36005604
0.044374388 -0.019242106 0.35996568
0.044524271 -0.019250175 0.36011112
0.04468438 -0.019262701 0.36033827
0.044781279 -0.019247994 0.36005548
0.044949777 -0.019264122 0.36034849
0.045065109 -0.019257523 0.36021423
0.045190781 -0.019255504 0.36016372
0.045327697 -0.019257767 0.36020279
0.045466986 -0.019261593 0.36025944
0.045611963 -0.019267296 0.36036146
0.046122346 -0.019261893 0.3602196
0.046274275 -0.019270437 0.36037368
0.046408787 -0.019271584 0.36039227
0.046551604 -0.019276794 0.36047414
0.04667294 -0.019272959 0.36039039
0.046791423 -0.019267295 0.36028421
0.048975781 -0.019302413 0.36078748
0.049103506 -0.019301223 0.36075205
0.049240727 -0.019303231 0.36078629
0.049365044 -0.019300643 0.36072546
0.049526218 -0.019312238 0.36093494
0.049632341 -0.019302541 0.36074167
0.049792681 -0.01931389 0.36094385
0.051825617 -0.019337781 0.36123627
0.051956356 -0.019337291 0.36122185
0.052104201 -0.019343512 0.36132473
0.052219439 -0.019337162 0.36120299
0.052363444 -0.019341886 0.36127847
0.052502722 -0.019344842 0.36132279
0.052642193 -0.019347841 0.36136663
0.05278169 -0.019350834 0.36141178
0.052929159 -0.019356556 0.36150959
0.053062394 -0.019357316 0.36151129
0.053189971 -0.019355834 0.36147308
0.053324312 -0.019356858 0.36147866
0.053454574 -0.019355977 0.36145976
0.053607423 -0.019364012 0.36159292
0.054839812 -0.019381067 0.36181349
0.054983046 -0.019385008 0.36188191
0.055082824 -0.019373458 0.36165759
0.05524737 -0.019385155 0.36186555
0.058278579 -0.019429443 0.36244822
0.058384016 -0.019420514 0.36227113
0.059747878 -0.019434726 0.36242372
0.059899267 -0.019440809 0.36252937
0.064140663 -0.019525174 0.36374846
0.064304233 -0.019534744 0.36390951
0.064472593 -0.019545361 0.36409992
0.064589746 -0.019540738 0.36399776
0.064746149 -0.019547984 0.36411932
0.064892493 -0.019552136 0.36418128
0.065031871 -0.019553732 0.36420694
0.06511426 -0.019538719 0.36390838
0.011139144 -0.018891728 0.35724249
0.011283055 -0.018916482 0.35770002
0.012691902 -0.018892415 0.35721818
0.012825215 -0.018898176 0.3573243
0.013224078 -0.018913316 0.35760304
0.01334729 -0.018904362 0.35743251
0.013481682 -0.018910974 0.35755897
0.015166093 -0.01891206 0.3575393
0.015306767 -0.018926073 0.35779774
0.015426922 -0.018914651 0.35757485
0.015562349 -0.018921833 0.35770711
0.015687728 -0.018916564 0.35760903
0.015813747 -0.018912122 0.35752633
0.015949629 -0.018919721 0.35766622
0.016078765 -0.018919602 0.35765222
0.016206238 -0.018916992 0.35760331
0.018170778 -0.018939305 0.35797176
0.018298713 -0.018937642 0.35793328
0.018427361 -0.018936634 0.35790962
0.022337412 -0.018953446 0.35810289
0.022477427 -0.018962054 0.3582609
0.024683062 -0.01896042 0.3581551
0.02481804 -0.018964464 0.35822439
0.031911582 -0.019013004 0.35883322
0.039197657 -0.019075196 0.35960796
0.039315995 -0.019068806 0.35948789
0.040907145 -0.019080427 0.35960925
0.041049082 -0.019085493 0.3597005
0.047324196 -0.019140128 0.36031753
0.047450751 -0.019138277 0.36027542
0.047599766 -0.019145535 0.36040109
0.047725365 -0.019143304 0.36035195
0.048533384 -0.019152001 0.36045748
0.048677202 -0.019156862 0.36054033
0.048788656 -0.019149106 0.36038765
0.04895341 -0.019162159 0.36062574
0.049076114 -0.019159015 0.36055398
0.049209252 -0.019159922 0.36055732
0.049345843 -0.019161843 0.36058974
0.050425757 -0.019173695 0.36073115
0.050580129 -0.019182369 0.36088446
0.052055642 -0.019193936 0.36099356
0.05221026 -0.01920237 0.36114249
0.052336175 -0.019200332 0.36109501
0.061919119 -0.019320427 0.36258063
0.062040959 -0.019317232 0.36250371
0.062153298 -0.019310772 0.36238059
0.068938531 -0.01947365 0.36483419
0.010383163 -0.018799201 0.35795856
0.010505022 -0.018785415 0.35769027
0.011271235 -0.018767213 0.35732722
0.011405545 -0.018774873 0.35748073
0.011532578 -0.018771261 0.35740191
0.011662486 -0.018771894 0.35741347
0.012952214 -0.018765021 0.35725915
0.013085352 -0.018770367 0.35735828
0.016199157 -0.018779051 0.35745004
0.016335083 -0.018786507 0.35758814
0.017636288 -0.018792804 0.35767084
0.017768569 -0.018795621 0.35772201
0.019850431 -0.01880379 0.35780874
0.019979816 -0.018803392 0.35780036
0.022209834 -0.018825358 0.35814637
0.022327403 -0.018815259 0.35794607
0.022464456 -0.018821362 0.35805851
0.022583671 -0.018812422 0.35788652
0.024156829 -0.018825574 0.35807624
0.024311135 -0.018844791 0.3584325
0.030432461 -0.018853812 0.35835129
0.030567607 -0.018856848 0.35840607
0.030721013 -0.018871278 0.35867271
0.032021325 -0.018870847 0.35860252
0.032172166 -0.018883031 0.35882717
0.032294467 -0.018878685 0.35873351
0.032459147 -0.018898984 0.35910895
0.039046951 -0.018934514 0.35943404
0.039166626 -0.018929461 0.35932681
0.040636156 -0.018945446 0.3595432
0.040758844 -0.018941376 0.35946527
0.043049946 -0.018973287 0.35992351
0.043154541 -0.018961543 0.35969692
0.044762824 -0.018978387 0.35991338
0.044898033 -0.018980591 0.35994041
0.046361975 -0.018990533 0.36003497
0.046505935 -0.018995941 0.3601279
0.04664202 -0.018997801 0.36015791
0.046791598 -0.019005708 0.36029282
0.047730781 -0.019014606 0.36039522
0.047862452 -0.019014573 0.36039174
0.047991544 -0.019013923 0.3603662
0.048126422 -0.019015269 0.36038589
0.048254352 -0.019014273 0.36035222
0.050298396 -0.019043792 0.36077118
0.050426833 -0.019042749 0.36074063
0.051785402 -0.019059876 0.36096346
0.051925816 -0.019063056 0.36101696
0.052048106 -0.019059684 0.36094314
0.052196432 -0.019065807 0.3610512
0.052339394 -0.019069944 0.36111724
0.052470714 -0.019070128 0.36110994
0.052589558 -0.019065693 0.36101031
0.052748688 -0.019075748 0.36119309
0.052873764 -0.019073179 0.36113846
0.053012889 -0.0190762 0.36118075
0.053121261 -0.019067517 0.3610104
0.053302079 -0.019085176 0.36133501
0.053406194 -0.019075407 0.36113971
0.059705433 -0.019156581 0.36217064
0.05983055 -0.019154226 0.36212078
0.059953753 -0.019151757 0.36205262
0.062786475 -0.01917029 0.36216134
0.062988117 -0.019191412 0.36254933
0.064827785 -0.0192667 0.36382532
0.064956591 -0.019265741 0.36379266
0.06506525 -0.019258289 0.36364126
0.065217532 -0.019264258 0.36374143
0.06531392 -0.019253522 0.36352393
0.065443121 -0.019252267 0.36349624
0.066696644 -0.019269917 0.36370462
0.066825233 -0.019268604 0.36367142
0.069001921 -0.019320697 0.36445576
0.069374807 -0.019350594 0.36499098
0.01114932 -0.018650146 0.35757601
0.011275293 -0.018644031 0.35746101
0.011407123 -0.018648496 0.35753301
0.011526262 -0.018631313 0.35721055
0.011654562 -0.018629979 0.35717377
0.011785317 -0.018632237 0.35721573
0.015291326 -0.018648172 0.35744324
0.015409134 -0.018633647 0.3571704
0.015541551 -0.018637257 0.35723731
0.015933074 -0.018641382 0.35730124
0.016063476 -0.018642399 0.35731953
0.02113794 -0.018665716 0.35761863
0.021263983 -0.018662702 0.35755458
0.022440108 -0.018671053 0.3576732
0.02544355 -0.018687481 0.35787174
0.0255848 -0.018695924 0.3580285
0.031229226 -0.01873384 0.35851142
0.031346302 -0.018726282 0.35835683
0.033462394 -0.018746682 0.3586413
0.033582497 -0.018740688 0.35852721
0.039694041 -0.01880122 0.35934862
0.039820451 -0.01879951 0.35930324
0.050383948 -0.018895261 0.36043811
0.050545406 -0.018906504 0.36064398
0.051739622 -0.018911581 0.36064938
0.051901415 -0.018922877 0.36084735
0.052037086 -0.018924363 0.36087129
0.052447382 -0.018930169 0.36094949
0.052569851 -0.018927086 0.36088148
0.056621477 -0.018964287 0.36127666
0.056816652 -0.018985786 0.36166698
0.056911532 -0.018973241 0.3614246
0.061699718 -0.01902872 0.36208382
0.061841633 -0.019032119 0.36213198
0.062004771 -0.019041242 0.36229956
0.062116135 -0.019035187 0.3621709
0.062248778 -0.019035224 0.36215827
0.062375132 -0.019033259 0.36211723
0.067954943 -0.019154569 0.36393324
0.01527539 -0.018498957 0.35707438
0.015403981 -0.018498242 0.35705522
0.015537243 -0.018502897 0.35714191
0.01645113 -0.01851243 0.35729882
0.016575621 -0.018506674 0.35718936
0.022040427 -0.018532325 0.35751608
0.022186251 -0.018546037 0.35777345
0.022306459 -0.018538442 0.35761759
0.022435647 -0.018537909 0.35760632
0.022561759 -0.018534791 0.35754621
0.022700833 -0.01854283 0.3576912
0.022826539 -0.018539719 0.35762522
0.027271545 -0.018565834 0.35795507
0.027399806 -0.018564584 0.35792992
0.027529683 -0.018564435 0.35792547
0.029510405 -0.018586107 0.3582522
0.029629193 -0.018579336 0.35811144
0.029776622 -0.018590318 0.35831672
0.029900456 -0.018586216 0.35823768
0.032657877 -0.018603005 0.3584244
0.032787707 -0.01860263 0.35841542
0.037539739 -0.01863764 0.35884139
0.03769283 -0.018648909 0.35905138
0.037810557 -0.018642796 0.35892284
0.037953675 -0.018649288 0.35903737
0.038069155 -0.018641846 0.35888904
0.038211908 -0.018647822 0.35899922
0.038339067 -0.018646531 0.35896137
0.038475666 -0.018649383 0.35901278
0.04061367 -0.018673541 0.35935107
0.04072829 -0.018666333 0.35920176
0.040874932 -0.018673642 0.35933685
0.040986009 -0.018664842 0.35915759
0.046616316 -0.018725498 0.35996562
0.046749424 -0.018726492 0.35997418
0.056653902 -0.018843576 0.36148363
0.056784794 -0.018843258 0.36147115
0.056902178 -0.018838266 0.36136627
0.061249483 -0.018880242 0.36180267
0.061389439 -0.018882662 0.3618415
0.062216416 -0.018893393 0.36197603
0.062338915 -0.018890202 0.36190647
0.06353806 -0.01893308 0.36262813
0.063685335 -0.018937463 0.36270586
0.065774143 -0.018967936 0.36309195
0.065910891 -0.018968899 0.36310574
0.066017225 -0.018961156 0.36294642
0.066184103 -0.018971024 0.3631269
0.066307612 -0.018968819 0.36306059
0.068153121 -0.01900317 0.36355263
0.068361454 -0.01902432 0.36393976
0.010877439 -0.018369429 0.35716429
0.011014617 -0.018382648 0.35741311
0.011139046 -0.018374201 0.35725412
0.011271188 -0.018378751 0.3573401
0.013200885 -0.018362613 0.35699061
0.013327092 -0.018358603 0.35690245
0.013458601 -0.01836176 0.35696167
0.013588182 -0.018361961 0.35696501
0.013717423 -0.018361934 0.35696357
0.013844986 -0.018359641 0.35691312
0.016960077 -0.018373366 0.35710198
0.017094314 -0.018378582 0.35720178
0.027125442 -0.018424658 0.35774848
0.029370308 -0.01844972 0.35813788
0.029482996 -0.018439123 0.35792351
0.02961633 -0.018441139 0.35795999
0.029751616 -0.018444421 0.35801879
0.029872505 -0.018439097 0.35790613
0.035153951 -0.018486073 0.35855848
0.035288207 -0.018488301 0.35859263
0.035420924 -0.018489728 0.35861209
0.035552207 -0.018490028 0.35861588
0.035671256 -0.018484537 0.3584978
0.036190871 -0.018483663 0.35846105
0.036343101 -0.018495196 0.35867149
0.039525826 -0.018522507 0.35902008
0.03966596 -0.018527213 0.35910171
0.039789274 -0.018523596 0.3590287
0.039905574 -0.018517183 0.35889527
0.040051002 -0.018524077 0.35902154
0.042850271 -0.018550904 0.35936341
0.047814433 -0.018602494 0.36003911
0.047954276 -0.018605864 0.36009744
0.048088778 -0.018607575 0.36011368
0.049956355 -0.018620064 0.36022416
0.050096825 -0.01862365 0.36028588
0.054412182 -0.018665481 0.36076739
0.054566793 -0.018673571 0.36090699
0.058121242 -0.018718041 0.3614836
0.05823214 -0.018711099 0.36134773
0.058406405 -0.018724943 0.36159614
0.061113238 -0.018746626 0.361792
0.061260782 -0.018751517 0.36187625
0.061375324 -0.0187464 0.36175826
0.063304305 -0.018770471 0.36206323
0.063431576 -0.018769447 0.36202776
0.063609228 -0.018783044 0.36227131
0.063757978 -0.018787881 0.36235806
0.063935995 -0.018800886 0.36260173
0.011517058 -0.018228628 0.35693681
0.011646399 -0.018228779 0.35693276
0.011774641 -0.018227462 0.35690179
0.011903042 -0.018225875 0.35687107
0.013587626 -0.018231958 0.35695565
0.013711346 -0.018224454 0.35680497
0.013845076 -0.018230509 0.35692
0.013972029 -0.018227484 0.35685652
0.014103838 -0.018230846 0.35691991
0.014229341 -0.018225871 0.35682186
0.018253079 -0.018243251 0.35705855
0.01838135 -0.018242193 0.35703096
0.018513288 -0.018245073 0.35707968
0.018641975 -0.018244131 0.35706076
0.018776692 -0.018249383 0.35715997
0.022290429 -0.018265659 0.35736668
0.022419594 -0.01826575 0.35735732
0.022547731 -0.018264484 0.35732973
0.02268015 -0.018266685 0.35737246
0.022811625 -0.018268127 0.35739681
0.022943053 -0.018269857 0.35742375
0.023067262 -0.018265652 0.35733536
0.023201833 -0.018269537 0.35740983
0.026463155 -0.018285422 0.3575927
0.026603689 -0.018292855 0.35773483
0.026729668 -0.018290315 0.35767835
0.028178301 -0.01830502 0.35790071
0.028299406 -0.018299123 0.35778406
0.033428412 -0.018337144 0.3582876
0.033545006 -0.018329963 0.35813698
0.033697236 -0.018342197 0.35836849
0.0382029 -0.018382888 0.35892013
0.038307056 -0.018370423 0.35866818
0.03844028 -0.018371657 0.35868913
0.038574744 -0.018373933 0.35871911
0.040718008 -0.018400459 0.35911751
0.04084079 -0.018397359 0.35904381
0.043113612 -0.018421043 0.3593677
0.043253195 -0.018424854 0.35943481
0.045391917 -0.018444819 0.35968545
0.045507658 -0.018438932 0.35955709
0.045659237 -0.018447196 0.3597137
0.045798138 -0.018450635 0.35976794
0.051841501 -0.018506994 0.3604449
0.051954672 -0.018500924 0.36030668
0.059588134 -0.018591451 0.36147338
0.059713375 -0.018589772 0.36142558
0.060655132 -0.018595735 0.36145914
0.060795639 -0.018598365 0.36150247
0.060930852 -0.018599236 0.36150759
0.064298682 -0.018658852 0.36237594
0.064504296 -0.018680362 0.36278051
0.065684363 -0.018676898 0.3626036
0.065842651 -0.018684331 0.36273661
0.065984376 -0.018686781 0.36277306
0.066968732 -0.018703025 0.36299893
0.067072302 -0.018694757 0.36282727
0.0094363187 -0.018075429 0.3565014
0.013058785 -0.018086225 0.35664675
0.013192808 -0.018093191 0.35677981
0.013319966 -0.01809017 0.35671684
0.013453529 -0.018096145 0.35683516
0.018642379 -0.018115379 0.35707396
0.018765166 -0.018108519 0.3569411
0.018895468 -0.018109795 0.35695934
0.019032991 -0.01811742 0.35710576
0.019158568 -0.018114172 0.35703442
0.023587495 -0.018137658 0.35735407
0.023715599 -0.018136607 0.35732603
0.023850372 -0.018140616 0.35740149
0.02397915 -0.018140147 0.35738444
0.027113076 -0.01815686 0.35759202
0.02724486 -0.018158166 0.35761523
0.027368996 -0.018154753 0.35753638
0.027485307 -0.018145924 0.35735846
0.027641147 -0.018162992 0.3576915
0.031043522 -0.018180748 0.3578887
0.031175612 -0.018182481 0.35791051
0.034464773 -0.018205151 0.35819718
0.034587413 -0.018201485 0.35811672
0.034727532 -0.018206712 0.35821509
0.034870692 -0.018213715 0.3583425
0.034994949 -0.018210758 0.35827684
0.035130437 -0.018213468 0.35832438
0.037503228 -0.018229023 0.35850295
0.037640311 -0.018232649 0.35855928
0.037768543 -0.018231541 0.35853511
0.03790497 -0.018234478 0.35858542
0.038031954 -0.018233199 0.35854816
0.038701709 -0.01824199 0.35868472
0.038837526 -0.018244503 0.35873014
0.042173225 -0.018279146 0.35920542
0.042291701 -0.018273728 0.35909596
0.042420484 -0.018273113 0.3590726
0.04254812 -0.018271701 0.35904223
0.042713832 -0.018286953 0.35932887
0.045234002 -0.018302944 0.35948169
0.045375783 -0.018307408 0.35955665
0.052087113 -0.018369954 0.36030903
0.052208815 -0.018366594 0.36023769
0.052371129 -0.018377637 0.3604387
0.052493833 -0.018374655 0.36037314
0.05561908 -0.018410757 0.36083597
0.05574023 -0.018407224 0.3607634
0.055892114 -0.018414035 0.36088064
0.062799297 -0.018474396 0.36148277
0.06295044 -0.018480133 0.36157864
0.063044213 -0.018468946 0.36134899
0.063220702 -0.018481817 0.3615922
0.0089169797 -0.017940482 0.35639659
0.0091861859 -0.017961895 0.35682315
0.0093106106 -0.017952951 0.35663721
0.0094490144 -0.017970331 0.35698587
0.0095666703 -0.017948547 0.35655069
0.0096929939 -0.017943738 0.3564451
0.014354083 -0.01796185 0.35671255
0.014486114 -0.01796522 0.35677722
0.014612689 -0.017962029 0.35671395
0.017984428 -0.017974731 0.3568745
0.018112415 -0.017973142 0.35684294
0.018251413 -0.017982991 0.35703
0.018377071 -0.017979233 0.35695431
0.018501405 -0.017974691 0.3568573
0.018634666 -0.017978292 0.35692635
0.01877293 -0.017987089 0.35709539
0.019539066 -0.017977362 0.35688734
0.019674707 -0.01798355 0.35699487
0.019807827 -0.017987106 0.35706207
0.019932669 -0.017982617 0.3569741
0.020065684 -0.017985895 0.35703626
0.026310699 -0.018010404 0.35729659
0.026446307 -0.018014522 0.35737091
0.026581021 -0.018018158 0.35743713
0.026720725 -0.018025059 0.35756427
0.026856802 -0.018029381 0.35764599
0.02697131 -0.018018989 0.35743865
0.027108679 -0.018024335 0.35753813
0.027240239 -0.018025598 0.35755575
0.027374128 -0.018028419 0.3576082
0.027496716 -0.018023929 0.357508
0.027632575 -0.01802806 0.35758582
0.030387703 -0.01804723 0.35784298
0.030511795 -0.018043507 0.35777244
0.030641306 -0.018043574 0.35776052
0.030780097 -0.018048968 0.35786253
0.030901579 -0.018044209 0.35775706
0.031050069 -0.018054986 0.35796964
0.031166818 -0.0180474 0.35781065
0.031299397 -0.018048739 0.35783818
0.033154041 -0.018069478 0.35815197
0.03326834 -0.018060716 0.35797557
0.033412047 -0.018068559 0.35811806
0.033542 -0.018068302 0.35811111
0.033682294 -0.018073935 0.35821509
0.03380432 -0.018069783 0.3581236
0.033934664 -0.018069811 0.35812175
0.034064788 -0.018070221 0.35811597
0.036441602 -0.018088689 0.35836196
0.036576785 -0.018091278 0.35840517
0.036703996 -0.018089907 0.35836908
0.036851507 -0.018098611 0.35853258
0.038834121 -0.018112658 0.35870034
0.038970254 -0.018115258 0.3587479
0.039090462 -0.018110747 0.3586466
0.039223835 -0.018112164 0.35866889
0.03934725 -0.018109102 0.35859787
0.039501093 -0.018119957 0.35880548
0.039625246 -0.018117003 0.35874146
0.039750759 -0.018114952 0.3586916
0.039887328 -0.01811778 0.35873953
0.040044297 -0.018129872 0.35897136
0.04016193 -0.018124076 0.35884917
0.040310256 -0.018132314 0.35900161
0.040419232 -0.0181226 0.3588036
0.040574141 -0.01813357 0.35901338
0.040682118 -0.018123655 0.35880724
0.040839203 -0.018135726 0.35903564
0.040959265 -0.018131176 0.35893592
0.041085828 -0.018129379 0.35889572
0.04216262 -0.018143829 0.35911909
0.042285562 -0.018140666 0.35904616
0.042427909 -0.018145768 0.35913947
0.04643343 -0.018181536 0.35958654
0.046577696 -0.018186981 0.35967842
0.046704009 -0.018185245 0.35963833
0.046827208 -0.018182173 0.35956779
0.046974722 -0.018188728 0.3596907
0.047105044 -0.018188598 0.3596746
0.047247291 -0.018193034 0.35975644
0.04843406 -0.018196514 0.35973969
0.048581794 -0.01820292 0.35985953
0.04871786 -0.018204905 0.35988438
0.048852842 -0.018206501 0.35990891
0.048967317 -0.01820017 0.35977501
0.049097568 -0.018200202 0.35976097
0.049241055 -0.018204622 0.35984346
0.049386635 -0.018209843 0.35994136
0.05248113 -0.018239241 0.36028659
0.052609097 -0.018237952 0.36025763
0.052753329 -0.01824262 0.36033389
0.052892562 -0.018245526 0.36038196
0.052997943 -0.018236309 0.36019385
0.053153455 -0.0182449 0.36035156
0.054513674 -0.018261265 0.3605696
0.054634042 -0.018257534 0.36048365
0.05479379 -0.018267091 0.36066401
0.054902986 -0.018259579 0.36050496
0.055054415 -0.018266395 0.36062989
0.055172451 -0.018261762 0.36052889
0.055321153 -0.018267628 0.36063555
0.055461504 -0.01827053 0.36068007
0.05559912 -0.018272599 0.36071342
0.059957996 -0.018320331 0.36129618
0.060074031 -0.01831542 0.36118731
0.060214642 -0.018318132 0.36123291
0.060359593 -0.018322095 0.36129761
0.060485199 -0.018320385 0.36125267
0.06407018 -0.018366778 0.36185381
0.064201847 -0.018366663 0.36183721
0.067571133 -0.018421281 0.36261672
0.067750655 -0.018434484 0.36285615
0.067888021 -0.018435383 0.36286971
0.07099843 -0.018486356 0.3635833
0.071195029 -0.018503342 0.36389542
0.072465554 -0.018522291 0.36414465
0.072634757 -0.01853147 0.36431625
0.072762445 -0.018529858 0.36427113
0.073061399 -0.018538494 0.36440647
0.010505823 -0.017879924 0.35774255
0.010615188 -0.017845752 0.35706142
0.015904885 -0.017832926 0.35668635
0.016033487 -0.017832382 0.35667422
0.016162626 -0.017832225 0.35666624
0.017203933 -0.017840445 0.35679853
0.017331196 -0.01783843 0.35675743
0.019674543 -0.017853748 0.35699835
0.019800477 -0.017850932 0.35693064
0.022926843 -0.017868441 0.35717827
0.023051003 -0.017864224 0.35709381
0.023179965 -0.017864197 0.35708034
0.023308409 -0.017863443 0.3570635
0.037631184 -0.01796771 0.35847932
0.037744634 -0.017959747 0.3583141
0.037893988 -0.017968791 0.35848823
0.038023453 -0.017968617 0.35847464
0.038156446 -0.017969914 0.3584933
0.038297355 -0.017975006 0.35858759
0.038426921 -0.017974867 0.35857299
0.038534243 -0.017963903 0.3583537
0.038684167 -0.017973095 0.35852852
0.038802806 -0.017967867 0.3584165
0.042535949 -0.018005578 0.35894558
0.042671971 -0.018007925 0.35898012
0.042817697 -0.018014612 0.35910431
0.051519085 -0.018092366 0.36005166
0.051644702 -0.01809047 0.360008
0.060330946 -0.018181691 0.36113247
0.060486384 -0.018188838 0.36125979
0.060579017 -0.018177293 0.36101875
0.062353265 -0.018195935 0.36123025
0.062485985 -0.018195987 0.36122668
0.012797383 -0.017694389 0.35657796
0.012922327 -0.017688517 0.3564505
0.013052066 -0.017689846 0.35647479
0.019537019 -0.017717101 0.35685501
0.019664137 -0.017714972 0.35680994
0.02292308 -0.017736325 0.35712463
0.023050804 -0.017734749 0.3570922
0.023181885 -0.017735992 0.3571147
0.023313884 -0.01773797 0.35714766
0.023440761 -0.017736269 0.35710499
0.023577809 -0.017741924 0.35721472
0.029846691 -0.017774623 0.35761186
0.029978586 -0.017775843 0.35763356
0.031299122 -0.01778928 0.35784057
0.031418055 -0.017782947 0.35770938
0.031550165 -0.017784281 0.3577311
0.031683691 -0.01778643 0.35776615
0.031817898 -0.017788829 0.35781097
0.034848601 -0.017812319 0.35812449
0.034982339 -0.017814092 0.35815662
0.035105743 -0.01781063 0.35808167
0.035232067 -0.017808875 0.35803768
0.035638832 -0.017817458 0.35818714
0.035761002 -0.017813487 0.35810217
0.035897609 -0.017816614 0.35816109
0.041880116 -0.017873863 0.35895771
0.04199633 -0.017867733 0.35882384
0.04214387 -0.017874712 0.35896626
0.042268436 -0.017872728 0.35890451
0.053251177 -0.017971046 0.36011896
0.053415671 -0.017982395 0.36033729
0.053525578 -0.017975148 0.36018085
0.055297367 -0.017997304 0.36048737
0.055407338 -0.01799022 0.36033437
0.055574946 -0.018002128 0.36056322
0.057029422 -0.018005257 0.36050496
0.057165377 -0.018006766 0.36052594
0.057321191 -0.018014448 0.36066622
0.057463739 -0.018017827 0.36072803
0.057602566 -0.018020226 0.36076069
0.059367489 -0.018037207 0.3609609
0.059474345 -0.018030016 0.36079651
0.060560726 -0.018040285 0.36090985
0.060709316 -0.018045273 0.3610028
0.060845196 -0.018046537 0.36101323
0.062345468 -0.018061554 0.361191
0.062923878 -0.018076392 0.36143675
0.06303671 -0.018071022 0.36131606
0.064642377 -0.018114872 0.36205932
0.064797893 -0.01812138 0.36217475
0.066118002 -0.018120814 0.36204308
0.066284977 -0.018130487 0.36222327
0.067001745 -0.018145662 0.3624593
0.067133322 -0.018145382 0.36244485
0.067277879 -0.018148534 0.36249596
0.068937026 -0.018167527 0.36271504
0.069085605 -0.018171802 0.36278921
0.069232762 -0.018175445 0.36285049
0.070658669 -0.018201377 0.36323586
0.070823595 -0.018209761 0.36339033
0.074996948 -0.018288612 0.36456212
0.019921293 -0.01758476 0.35678184
0.020048555 -0.017582465 0.35673591
0.020180816 -0.017585518 0.35679099
0.023043837 -0.01760027 0.35699037
0.023182122 -0.017606596 0.3571153
0.023302717 -0.017600093 0.35698339
0.023434376 -0.017601836 0.35700557
0.023568297 -0.017605258 0.35707542
0.026571352 -0.017623095 0.35731044
0.026689468 -0.01761546 0.35715631
0.026828233 -0.017621258 0.35727006
0.027474795 -0.017620731 0.35723397
0.027617974 -0.017629655 0.35740045
0.033910431 -0.017667314 0.35787186
0.034037732 -0.017665997 0.35784224
0.034175083 -0.017670121 0.35791069
0.034831438 -0.017673619 0.357952
0.034949005 -0.017667223 0.35781458
0.035080954 -0.017668474 0.35783336
0.035498861 -0.01768245 0.35809404
0.035651714 -0.017693853 0.35831729
0.046387427 -0.017771786 0.35923693
0.046517588 -0.017771548 0.35922793
0.046646878 -0.017771084 0.35920492
0.052698653 -0.017830301 0.35997346
0.052832771 -0.017831219 0.35998181
0.052968349 -0.017833233 0.36000529
0.064707309 -0.017963815 0.36167613
0.064925618 -0.017988103 0.36214101
0.065032691 -0.017980944 0.36199236
0.065182641 -0.017985819 0.36207634
0.065290704 -0.017979315 0.36193362
0.065444015 -0.017985336 0.36203536
0.067762345 -0.017795309 0.3579421
0.068768419 -0.018025391 0.36254108
0.068050414 -0.017802222 0.35805652
0.069070943 -0.018035116 0.36271304
0.069205135 -0.018035881 0.36271122
0.06940645 -0.018053519 0.36305591
0.06946145 -0.018033465 0.36264092
0.070860475 -0.018052282 0.36289093
0.071054846 -0.018068144 0.36318916
0.072757564 -0.018095776 0.36357802
0.072890386 -0.018095531 0.36356759
0.014604631 -0.017435512 0.35652924
0.014729785 -0.017430324 0.35642087
0.01486264 -0.017435145 0.3565152
0.014987471 -0.017430173 0.35640341
0.015376109 -0.017431883 0.35643309
0.015505658 -0.017431937 0.35643375
0.015634753 -0.017432364 0.35643584
0.029706469 -0.017508939 0.35749882
0.029834447 -0.017507924 0.35746825
0.037201852 -0.017559074 0.35813379
0.037339784 -0.017562434 0.3582063
0.037455238 -0.017555421 0.35805559
0.037601173 -0.0175632 0.35820407
0.037737947 -0.017566381 0.3582567
0.037863996 -0.017564643 0.3582153
0.038000863 -0.017567845 0.35826841
0.038124528 -0.017564572 0.35820433
0.038267691 -0.017570484 0.35831556
0.038405709 -0.017574379 0.35838661
0.03852585 -0.017569665 0.3582817
0.038661692 -0.01757249 0.35833162
0.038793758 -0.017573344 0.35833755
0.042245485 -0.017602116 0.35871637
0.042383362 -0.017605321 0.35877597
0.04251653 -0.017606586 0.35878742
0.042644512 -0.017605364 0.35876319
0.0427805 -0.017607411 0.35879797
0.042898763 -0.017602889 0.3586919
0.043316483 -0.017613607 0.35888544
0.04344102 -0.017611308 0.35883144
0.047710393 -0.017647265 0.35927948
0.047854651 -0.017652281 0.35936946
0.051738497 -0.017684681 0.35974905
0.051864322 -0.017682925 0.35969996
0.052274395 -0.017688749 0.35979268
0.052415136 -0.017692203 0.35984698
0.052544877 -0.017691649 0.35983136
0.056076206 -0.017731905 0.36037296
0.056185707 -0.017724905 0.36021948
0.060966041 -0.017780116 0.36094761
0.061093327 -0.017778827 0.3609075
0.061236508 -0.017782046 0.36096668
0.067087874 -0.01786851 0.36220622
0.067220218 -0.017868899 0.36219141
0.066475056 -0.017635079 0.35746413
0.067639008 -0.017874766 0.36227205
0.067606255 -0.017657973 0.35782409
0.068611518 -0.017886443 0.36242801
0.067909457 -0.017668726 0.35801917
0.073310107 -0.017967822 0.36363232
0.073415153 -0.017960809 0.36347803
0.073603086 -0.01797444 0.36373863
0.073796973 -0.017989285 0.36402276
0.010073104 -0.01728609 0.35620588
0.010235341 -0.017342485 0.35736448
0.010346873 -0.01731235 0.35674486
0.011116144 -0.017303359 0.35654381
0.011242498 -0.017298779 0.35644218
0.012395004 -0.017286299 0.35616639
0.012525214 -0.017287351 0.35618979
0.01304247 -0.01728937 0.3562139
0.013171026 -0.017289201 0.35620829
0.013300184 -0.017288806 0.35620028
0.01926627 -0.017318087 0.35664153
0.019392965 -0.017316164 0.35659981
0.01952746 -0.017320359 0.356684
0.021348739 -0.017330453 0.35682723
0.021463677 -0.017318483 0.35658467
0.021609411 -0.01733195 0.35685375
0.021857319 -0.017323613 0.3566705
0.021988392 -0.017325219 0.35670009
0.022122441 -0.017328644 0.35676804
0.025123721 -0.017347859 0.35705674
0.025254415 -0.017348729 0.35706556
0.02538335 -0.01734864 0.3570582
0.031000042 -0.017377583 0.35740343
0.031130577 -0.017377937 0.35741237
0.031263173 -0.017379384 0.35743493
0.031396691 -0.017381718 0.35747817
0.031528745 -0.017383132 0.35749328
0.033906519 -0.017405448 0.3578364
0.034029637 -0.017402161 0.35776412
0.034166262 -0.017405702 0.35782418
0.034286708 -0.017400853 0.35772324
0.034430049 -0.01740743 0.35785365
0.037071284 -0.017428491 0.35813868
0.03718251 -0.017419679 0.35795522
0.037333101 -0.017429542 0.3581422
0.037451662 -0.017424228 0.3580291
0.037595641 -0.01743024 0.35815072
0.039042547 -0.017438123 0.35822451
0.039174754 -0.017439015 0.35823262
0.039290983 -0.017432947 0.35810256
0.042238653 -0.017468967 0.3586657
0.042372167 -0.017470263 0.35868046
0.042506471 -0.017471971 0.35871041
0.044764429 -0.017488344 0.35890299
0.044899438 -0.017490106 0.35893404
0.048246529 -0.017521715 0.35934341
0.04836772 -0.017518116 0.35926694
0.048485156 -0.017513337 0.35915664
0.052499436 -0.017545607 0.35952023
0.052640487 -0.017548967 0.35958293
0.052808199 -0.017560983 0.35982132
0.055908766 -0.017589122 0.36015448
0.056057796 -0.017594744 0.36025506
0.056179255 -0.017591473 0.36018461
0.059048645 -0.017625766 0.36065012
0.059139673 -0.017613931 0.36039591
0.05929115 -0.017620031 0.36050364
0.059440456 -0.017625067 0.36060399
0.059574444 -0.017626075 0.36060506
0.059713785 -0.017628426 0.36064461
0.060131405 -0.017635107 0.36074668
0.060243543 -0.017629305 0.36062264
0.060409538 -0.017639467 0.3608143
0.063266985 -0.017447377 0.35658768
0.064207993 -0.017671682 0.36113366
0.06433817 -0.017671004 0.3611151
0.064534307 -0.01768844 0.36146107
0.064697765 -0.017697109 0.36162901
0.066896789 -0.01772064 0.36190394
0.06707973 -0.017734336 0.36216292
0.067190617 -0.017728349 0.36203805
0.06796027 -0.017722335 0.36183429
0.068189502 -0.017747689 0.36233732
0.068286352 -0.017738463 0.36213911
0.073715933 -0.0178368 0.36363026
0.073938787 -0.01785819 0.36405525
0.074020527 -0.017845949 0.36379266
0.074165381 -0.01784868 0.36383259
0.078903615 -0.017958205 0.36560598
0.0090490934 -0.017172031 0.35653493
0.009170793 -0.017157856 0.35624662
0.010737 -0.017187458 0.35682625
0.010868659 -0.017190961 0.35690156
0.010993044 -0.017183783 0.35674432
0.01214071 -0.01716204 0.35627329
0.012265 -0.017155841 0.35614267
0.019781834 -0.017187923 0.35661164
0.019914581 -0.017190991 0.35666516
0.027463805 -0.01722515 0.35709637
0.02759718 -0.017227547 0.35714653
0.028650941 -0.017238665 0.35732406
0.028772762 -0.017233448 0.35721731
0.030746333 -0.017251013 0.35748756
0.030864902 -0.017244833 0.35734877
0.031001849 -0.017248668 0.35743245
0.031382889 -0.017244475 0.3573195
0.031527527 -0.017252963 0.35748762
0.035274055 -0.016933627 0.35067651
0.036123987 -0.017280666 0.35782367
0.039424073 -0.017304165 0.35812518
0.039566845 -0.017309796 0.35822931
0.039704818 -0.017312938 0.35829639
0.039831188 -0.017311189 0.35825148
0.040363085 -0.017316483 0.35832232
0.040501446 -0.017319841 0.35838717
0.040634755 -0.017321568 0.35840693
0.042626735 -0.017337466 0.35862041
0.042744745 -0.017332455 0.35850504
0.045678165 -0.017358374 0.35884938
0.045819782 -0.01736269 0.35893205
0.049145456 -0.017384933 0.35916525
0.049304847 -0.017395578 0.35936487
0.049427036 -0.017392239 0.35929388
0.049528435 -0.017382026 0.35907194
0.052932076 -0.017427953 0.3597658
0.053068541 -0.017429683 0.35979608
0.057662636 -0.017472679 0.36031991
0.057790644 -0.017471708 0.36028546
0.057949852 -0.017480154 0.36045107
0.065529212 -0.017576275 0.36177412
0.065652311 -0.017573623 0.36171526
0.065804712 -0.017579148 0.36181176
0.06733539 -0.017599383 0.36209673
0.067493364 -0.017606027 0.36221939
0.067849346 -0.017391806 0.35770881
0.068849057 -0.01761457 0.36226529
0.075258613 -0.01772251 0.36386648
0.07539361 -0.017722687 0.36385915
0.012654942 -0.017030731 0.35622364
0.012780615 -0.017026085 0.35611904
0.012906126 -0.017021969 0.35602981
0.01303938 -0.017027006 0.35613537
0.014972663 -0.017026184 0.35606825
0.015106372 -0.017030928 0.35616949
0.016011793 -0.017033949 0.35620779
0.0161494 -0.017042793 0.35638779
0.016263241 -0.01702694 0.35605726
0.026287898 -0.017088525 0.35700369
0.026414497 -0.017087076 0.35695955
0.034411334 -0.017138738 0.35766554
0.034541566 -0.017139006 0.35766718
0.03743187 -0.017155068 0.35784662
0.037570782 -0.017158799 0.35792097
0.039672922 -0.01716904 0.35800868
0.039804228 -0.017169604 0.35801595
0.041414652 -0.017190691 0.35835534
0.041539639 -0.017188437 0.35829952
0.041661408 -0.017185047 0.35822338
0.041798633 -0.017188001 0.35827211
0.042210523 -0.01719656 0.35843343
0.04233497 -0.017194156 0.3583726
0.047929361 -0.017240189 0.35895088
0.048063599 -0.017241465 0.35897234
0.048223257 -0.017251629 0.35917684
0.048313607 -0.017237443 0.35887134
0.052248742 -0.0172872 0.35962304
0.052374382 -0.017285526 0.35957989
0.052513335 -0.01728813 0.35962245
0.052621126 -0.017280463 0.35945719
0.052760676 -0.017283257 0.35950381
0.052905753 -0.017288104 0.35959324
0.053059023 -0.017295415 0.35973155
0.053154647 -0.017284149 0.35948545
0.054653633 -0.01730267 0.35976133
0.054789167 -0.017304171 0.35978428
0.054931715 -0.017307805 0.35984609
0.057769708 -0.017333876 0.36016092
0.057910036 -0.017336736 0.36020389
0.058067225 -0.017344488 0.3603566
0.058186341 -0.017340837 0.36026737
0.058324642 -0.017343033 0.3603023
0.058449507 -0.017340917 0.36024901
0.065081902 -0.017430225 0.36152965
0.065212399 -0.017429719 0.3615135
0.065367609 -0.017435975 0.36162597
0.065490611 -0.017433405 0.36156797
0.065655641 -0.017442295 0.36173391
0.065748513 -0.017432118 0.36150944
0.065891802 -0.017435139 0.36155581
0.066029124 -0.01743637 0.36157557
0.066157706 -0.017435471 0.36154211
0.066274449 -0.017431367 0.36144871
0.066448696 -0.017442493 0.36166415
0.068978764 -0.01748189 0.36224189
0.069120556 -0.017484192 0.36228269
0.069305025 -0.017497525 0.36253867
0.069398791 -0.017487489 0.36232677
0.069581434 -0.017500224 0.36257264
0.069681302 -0.017491985 0.36239409
0.069806807 -0.017490445 0.36234128
0.076255448 -0.017604094 0.36408338
0.078410484 -0.017639693 0.36459357
0.078641489 -0.017661817 0.36503571
0.078671075 -0.017638462 0.36453521
0.07938394 -0.017678311 0.36530045
0.079621278 -0.017671671 0.36513239
0.011117676 -0.01691854 0.35660034
0.011237375 -0.016903957 0.35629931
0.01136311 -0.016898792 0.35618496
0.014586622 -0.016898032 0.35610324
0.014718276 -0.016900908 0.35615689
0.0167905 -0.016909363 0.35628152
0.016919091 -0.016909231 0.35627583
0.017048601 -0.016909191 0.35627475
0.018344987 -0.01691498 0.35635215
0.018477328 -0.016917838 0.35641786
0.019382035 -0.016918648 0.35640109
0.019510567 -0.016918363 0.3563922
0.019644083 -0.016921742 0.35646114
0.019773379 -0.016922299 0.3564657
0.019902345 -0.016922113 0.35645264
0.020036507 -0.016926277 0.35654345
0.020159421 -0.01692085 0.35642305
0.020290589 -0.016922787 0.35645995
0.020426912 -0.016928446 0.35657552
0.023022112 -0.016937025 0.35666287
0.023153367 -0.016938735 0.35669476
0.026931165 -0.016956788 0.35692906
0.026715998 -0.016740201 0.3523843
0.027189789 -0.016956963 0.35691565
0.027849574 -0.016964648 0.35705781
0.031505808 -0.01698155 0.35724834
0.031636227 -0.016981993 0.35724646
0.031773187 -0.016986135 0.35732758
0.045103461 -0.017077042 0.35847077
0.045257468 -0.01708618 0.35865358
0.046203289 -0.017098457 0.35884592
0.046340946 -0.017101187 0.35889718
0.049940772 -0.017127583 0.35919687
0.050069712 -0.01712711 0.35917798
0.051698104 -0.017147448 0.35948148
0.051811349 -0.01714156 0.35934618
0.053040907 -0.017158782 0.35961539
0.053156946 -0.017153963 0.35950172
0.057086654 -0.017194759 0.36004925
0.057217985 -0.017194688 0.3600367
0.057351958 -0.017195394 0.36004615
0.061419971 -0.017233048 0.36048847
0.061543759 -0.017230898 0.36042929
0.061685279 -0.017233592 0.36047924
0.06184008 -0.017240275 0.36060089
0.061997116 -0.017247351 0.36074051
0.062125217 -0.01724639 0.36070561
0.062273324 -0.017250909 0.36079285
0.069821715 -0.017361656 0.36242515
0.069927074 -0.017354753 0.36226875
0.070096835 -0.017364126 0.36245206
0.070219278 -0.017362045 0.36238462
0.070354626 -0.017362503 0.36238864
0.080982417 -0.017571963 0.36571485
0.081648178 -0.017600264 0.36623719
0.08178357 -0.017600626 0.36622763
0.010735494 -0.016797155 0.35678387
0.01085433 -0.016781297 0.35644275
0.013548313 -0.016760467 0.35594961
0.013677897 -0.016761813 0.35597268
0.013807085 -0.01676213 0.35596871
0.014458152 -0.016769908 0.35612127
0.020408336 -0.016784269 0.35626003
0.020540033 -0.016786436 0.35629621
0.020674624 -0.016790805 0.35639158
0.02080535 -0.016792087 0.3564094
0.020938653 -0.01679533 0.35648146
0.021061108 -0.016789814 0.35635826
0.021189243 -0.016789446 0.35634363
0.021323025 -0.016792588 0.35641173
0.033992618 -0.016864404 0.35738721
0.034123108 -0.016865006 0.35738546
0.03425236 -0.016864445 0.35737765
0.040978372 -0.016911164 0.35798314
0.040625188 -0.016711859 0.35377127
0.041264467 -0.016922234 0.35819319
0.041807514 -0.016931275 0.35835469
0.041917142 -0.016922923 0.35817471
0.042069368 -0.016932009 0.3583509
0.042184208 -0.016925743 0.35821649
0.044578481 -0.016945286 0.35848156
0.04472686 -0.01695222 0.35861459
0.044827733 -0.016941167 0.35837409
0.044990081 -0.01695329 0.35861737
0.045112576 -0.016950268 0.3585501
0.052470941 -0.017012388 0.3593381
0.052584533 -0.017007204 0.35921371
0.055310402 -0.017041378 0.3597306
0.055429611 -0.017037693 0.35963967
0.055573311 -0.01704172 0.35971496
0.058289379 -0.017070023 0.36009079
0.058447968 -0.017077882 0.36024556
0.06208716 -0.017104188 0.36049092
0.062247969 -0.01711248 0.36064664
0.062373966 -0.017110938 0.36060509
0.065323167 -0.017160051 0.36138624
0.065441765 -0.017156681 0.36130401
0.065607153 -0.017165275 0.36147305
0.067004874 -0.017186038 0.36177146
0.067137271 -0.017185925 0.36176357
0.076078616 -0.017328018 0.36389157
0.076185063 -0.017321618 0.36375341
0.010361461 -0.016690388 0.35726708
0.010472205 -0.016660508 0.35662878
0.017299997 -0.016644951 0.35613617
0.017433202 -0.016648907 0.35622558
0.017555673 -0.01664249 0.35608119
0.017695354 -0.016652891 0.35630053
0.0186 -0.016653819 0.35629037
0.018725634 -0.016650992 0.35622811
0.021059386 -0.01665974 0.35633767
0.021198183 -0.016667133 0.35649094
0.022365045 -0.016670357 0.35652569
0.02249237 -0.01666915 0.35648677
0.027576517 -0.016697172 0.35689121
0.027703708 -0.016695404 0.35685295
0.032934252 -0.016723812 0.35721269
0.033072133 -0.016728332 0.35730007
0.033206683 -0.016730854 0.35734132
0.033732824 -0.016734596 0.35739538
0.033863697 -0.016734885 0.3574051
0.033992808 -0.016734585 0.35738927
0.034123477 -0.016735105 0.35739607
0.03451575 -0.016736547 0.35740596
0.034654621 -0.01674132 0.35749716
0.036017276 -0.016532496 0.35295582
0.036618128 -0.016749281 0.35756072
0.036766246 -0.016757848 0.35773516
0.036890969 -0.016755665 0.35767514
0.0396602 -0.016773621 0.35790679
0.039799333 -0.016777752 0.35797828
0.04232176 -0.016798388 0.35827425
0.042438913 -0.016793475 0.35815206
0.042582724 -0.016798571 0.35826325
0.04271815 -0.016800657 0.35829493
0.051136591 -0.016873028 0.35925862
0.051258374 -0.016869981 0.35918269
0.05139694 -0.016872678 0.35923117
0.051804245 -0.016877711 0.35930339
0.051930014 -0.016876109 0.35926226
0.054097209 -0.016899565 0.35960054
0.054231301 -0.016900504 0.35960791
0.054365084 -0.01690146 0.35961992
0.05760181 -0.016929543 0.35994974
0.057736184 -0.016930193 0.35995916
0.057851192 -0.016925627 0.35984761
0.058027353 -0.016938737 0.36011618
0.077858269 -0.017205106 0.36393747
0.078044869 -0.017217407 0.36417425
0.080519624 -0.017261896 0.36486816
0.080660015 -0.01726347 0.36488351
0.080867931 -0.017279157 0.36520395
0.081133686 -0.017307645 0.36578768
0.08109767 -0.017271163 0.36500379
0.081436962 -0.01728633 0.36529619
0.0089086043 -0.016505027 0.35609624
0.0090333009 -0.016497768 0.35592952
0.009163891 -0.016500562 0.35599333
0.0092829131 -0.016482992 0.35561588
0.0094187241 -0.016495559 0.35587922
0.0095484927 -0.016497128 0.35591108
0.010733816 -0.016536338 0.35673374
0.010848557 -0.016514463 0.35626101
0.010984794 -0.016525298 0.35649022
0.018333394 -0.016517345 0.35614571
0.018466549 -0.016520921 0.35621366
0.018592954 -0.0165188 0.35616577
0.018716833 -0.016513629 0.35605636
0.019374568 -0.016524907 0.35627931
0.019500844 -0.016522439 0.35621712
0.0219569 -0.016525526 0.35620388
0.022094162 -0.01653171 0.35633174
0.022226905 -0.016534338 0.35638481
0.022361921 -0.01653867 0.35647377
0.022196848 -0.016321924 0.35181239
0.02261756 -0.016537007 0.35642159
0.022422718 -0.016300689 0.35134721
0.022873452 -0.016535042 0.35637575
0.023006476 -0.016538035 0.35643539
0.023130333 -0.016534353 0.35634404
0.023271549 -0.016542764 0.35652998
0.023393815 -0.016537892 0.3564139
0.023518883 -0.016534934 0.35635269
0.023659965 -0.016543273 0.35652244
0.023789056 -0.016543394 0.35652131
0.023918657 -0.01654326 0.35651752
0.024048485 -0.016543893 0.35652715
0.026784539 -0.016558213 0.3567152
0.026906682 -0.01655354 0.35661441
0.030168556 -0.016569689 0.35682464
0.030304767 -0.016573803 0.35690269
0.030449001 -0.016582035 0.35706598
0.030567251 -0.016575867 0.35693246
0.030701496 -0.016578134 0.35697851
0.03082978 -0.016577573 0.35696271
0.030960113 -0.016578242 0.35696247
0.031090338 -0.016578576 0.35696977
0.031217404 -0.016577031 0.35693139
0.031353451 -0.016580852 0.35700464
0.031496029 -0.01658793 0.35714227
0.031615522 -0.016582396 0.35702732
0.03175291 -0.016586404 0.35710442
0.031882107 -0.016586484 0.35709926
0.032016944 -0.016589338 0.35714778
0.032149266 -0.016590439 0.35717645
0.03227865 -0.016590362 0.35716361
0.032402478 -0.016587606 0.35709867
0.033190515 -0.016592922 0.35717595
0.035941217 -0.016606644 0.35732096
0.036082875 -0.016612077 0.35743195
0.03622606 -0.016618248 0.35755858
0.036361072 -0.016620729 0.35760638
0.036488377 -0.016619757 0.35757139
0.03612259 -0.01639393 0.35272938
0.039915606 -0.016641844 0.35785049
0.039516427 -0.016421162 0.35311848
0.040188476 -0.016646909 0.35795021
0.04030234 -0.01664049 0.3577995
0.04044693 -0.016646435 0.35792091
0.047099981 -0.016701186 0.35866743
0.04722321 -0.016698716 0.35860783
0.047383979 -0.016709626 0.35882464
0.04788927 -0.016703831 0.35866299
0.048018899 -0.016703516 0.35865146
0.050299745 -0.016724579 0.35894218
0.049773052 -0.016505979 0.35425785
0.058279335 -0.016804617 0.36003524
0.058408681 -0.016803782 0.36001006
0.058931652 -0.016803727 0.3599546
0.059073333 -0.016806677 0.36001068
0.063971408 -0.016852643 0.36057672
0.064127229 -0.016859014 0.36069879
0.063371964 -0.016625741 0.35571167
0.065303996 -0.016891163 0.36128652
0.065400571 -0.016882321 0.36108285
0.065558732 -0.016889267 0.36121285
0.0656607 -0.01688138 0.36103955
0.067238756 -0.016914029 0.36159003
0.067363724 -0.016912023 0.36154225
0.067496143 -0.016912142 0.36152902
0.067777321 -0.016916333 0.36159524
0.06974487 -0.016945655 0.36203253
0.069854587 -0.016940013 0.36190575
0.070010938 -0.016945824 0.36201444
0.07012964 -0.016942423 0.36193421
0.070290565 -0.016949313 0.36206579
0.070429355 -0.016950907 0.36208832
0.070551902 -0.01694889 0.36202273
0.070693724 -0.016951006 0.36206114
0.07083457 -0.016953094 0.36208892
0.070973806 -0.016954552 0.3621136
0.072959058 -0.016985733 0.36258522
0.073108613 -0.016989589 0.36265305
0.073230699 -0.016987242 0.36259136
0.073432907 -0.017003296 0.36291781
0.073966421 -0.01700398 0.36287594
0.074105628 -0.017005436 0.36289734
0.074260294 -0.01701037 0.3629877
0.074395157 -0.017011248 0.36298725
0.078602724 -0.017089261 0.36423135
0.078718863 -0.017085239 0.36414066
0.07884308 -0.01708368 0.36408016
0.078985706 -0.017085547 0.36411244
0.079177879 -0.017098369 0.36436486
0.080021068 -0.017107224 0.36447102
0.080209173 -0.017118905 0.36470821
0.080338761 -0.017118488 0.36467153
0.080510199 -0.017126497 0.36483201
0.080669731 -0.017131951 0.36493054
0.080880314 -0.017119935 0.36464491
0.08119157 -0.017157419 0.36543342
0.01315336 -0.016235238 0.35575557
0.013280846 -0.016233029 0.35570815
0.013412806 -0.016237399 0.35579848
0.013542927 -0.016238416 0.35581985
0.013670005 -0.016236769 0.3557789
0.013795101 -0.016232273 0.35567215
0.013926981 -0.016235895 0.35575658
0.014061215 -0.016242253 0.35588208
0.014188152 -0.01623987 0.35583782
0.014318453 -0.01624147 0.35586178
0.014442683 -0.016236315 0.35575309
0.01457708 -0.016242377 0.35587752
0.014706236 -0.016242584 0.35588884
0.022482008 -0.01627413 0.35633683
0.022614306 -0.016276063 0.35637698
0.022432778 -0.016053274 0.35151035
0.022867322 -0.01627264 0.35628611
0.023002082 -0.016276505 0.35637325
0.02312878 -0.016274737 0.35632616
0.023258353 -0.01627533 0.35633484
0.023398716 -0.016282843 0.3564944
0.02350875 -0.016269498 0.35620546
0.023642365 -0.016272824 0.35626259
0.02378202 -0.016279871 0.35642204
0.023911467 -0.016280232 0.35641587
0.024043078 -0.016281946 0.35645321
0.024175163 -0.016283717 0.35648531
0.024303453 -0.016283305 0.35647255
0.024425877 -0.016278846 0.35636342
